# .PCD v0.7 - Point Cloud Data file format
VERSION 0.7
FIELDS x y z
SIZE 4 4 4
TYPE F F F
COUNT 1 1 1
WIDTH 119
HEIGHT 1
VIEWPOINT 0 0 0 1 0 0 0
POINTS 119
DATA ascii
-1.3968924 0.8506918 3.6040001
-1.4331496 0.86245465 3.6810002
-1.4646859 0.86177266 3.7620001
-1.4548558 0.87487948 3.7620001
-1.4806488 0.8777895 3.8030002
-1.4740238 0.87447709 3.8030002
-1.4740238 0.89103913 3.8030002
-1.5005825 0.8773157 3.8890002
-1.5005825 0.8942523 3.8890002
-1.4938078 0.90441424 3.8890002
-1.5107087 0.8872416 3.9330001
-1.5244112 0.89409286 3.9330001
-1.5141343 0.89409286 3.9330001
-1.5107087 0.90094417 3.9330001
-1.5353092 0.89068729 3.9790001
-1.5561035 0.91841292 3.9790001
-1.5431987 0.93301439 4.0730004
-1.6070552 0.94720471 4.0730004
-1.5999601 0.94720471 4.0730004
-1.5186809 0.91551685 4.1220002
-1.5438128 0.92628765 4.1220002
-1.533042 0.92628765 4.1220002
-1.5438128 0.93705845 4.1220002
-1.533042 0.93705845 4.1220002
-1.5115004 0.93705845 4.1220002
-1.5402225 0.94423896 4.1220002
-1.533042 0.94423896 4.1220002
-1.5258615 0.94423896 4.1220002
-1.5150907 0.94423896 4.1220002
-1.6048472 0.95859998 4.1220002
-1.5258615 0.9550097 4.1220002
-1.5150907 0.9550097 4.1220002
-1.5043199 0.9550097 4.1220002
-1.5617641 0.98014158 4.1220002
-1.5545835 0.98014158 4.1220002
-1.547403 0.98014158 4.1220002
-1.4755977 0.98732209 4.1220002
-1.4755977 0.99450266 4.1220002
-1.5516378 0.8939178 4.1720004
-1.5443702 0.9193545 4.1720004
-1.5661731 0.92662209 4.1720004
-1.5552716 0.92662209 4.1720004
-1.5443702 0.92662209 4.1720004
-1.5443702 0.93388975 4.1720004
-1.5371026 0.93388975 4.1720004
-1.5443702 0.9447912 4.1720004
-1.5371026 0.9447912 4.1720004
-1.529835 0.94115734 4.1720004
-1.5443702 0.97749549 4.1720004
-1.5371026 0.97749549 4.1720004
-1.529835 0.97749549 4.1720004
-1.5734407 0.98476309 4.1720004
-1.5443702 0.98476309 4.1720004
-1.4934968 0.98476309 4.1720004
-1.4862292 0.98476309 4.1720004
-1.5443702 0.99929833 4.1720004
-1.5371026 0.99929833 4.1720004
-1.5225673 0.99929833 4.1720004
-1.5152997 0.99566454 4.1720004
-1.5031871 0.99687576 4.1720004
-1.4934968 0.99203074 4.1720004
-1.577962 0.90484536 4.223
-1.5742838 0.91588008 4.223
-1.5706056 0.92323655 4.223
-1.5706056 0.93059301 4.223
-1.5411798 0.98944473 4.223
-1.5338233 0.98944473 4.223
-1.5558927 0.9968012 4.223
-1.544858 0.9968012 4.223
-1.5338233 0.9968012 4.223
-1.5191103 0.9968012 4.223
-1.5632491 1.0041577 4.223
-1.5558927 1.0041577 4.223
-1.544858 1.0041577 4.223
-1.5264668 1.0041577 4.223
-1.5485362 1.0115142 4.223
-1.6048393 0.91598725 4.2750001
-1.6048393 0.92715776 4.2750001
-1.6048393 0.93460482 4.2750001
-1.5973923 0.93460482 4.2750001
-1.6048393 0.94205189 4.2750001
-1.5973923 0.94205189 4.2750001
-1.694204 0.97928715 4.2750001
-1.5452629 1.0090753 4.2750001
-1.5378159 1.0016283 4.2750001
-1.7042928 0.9991982 4.329
-1.6929811 0.99165708 4.329
-1.564782 1.0142804 4.329
-1.7005222 1.0293627 4.329
-1.7068535 0.9813453 4.3840003
-1.6992166 0.9813453 4.3840003
-1.7068535 0.99661916 4.3840003
-1.7259458 1.0042561 4.3840003
-1.7297643 1.0271668 4.3840003
-1.7297643 1.0424408 4.3840003
-1.7251776 0.98636836 4.441
-1.7445182 1.009577 4.441
-1.7290457 1.0018408 4.441
-1.7522544 1.0482582 4.441
-1.7445182 1.079203 4.441
-1.736782 1.079203 4.441
-1.7213095 1.0714668 4.441
-1.7594645 0.99925047 4.4990001
-1.7673018 1.014925 4.4990001
-1.7594645 1.014925 4.4990001
-1.7751391 1.0227622 4.4990001
-1.7594645 1.0227622 4.4990001
-1.7516273 1.0697858 4.4990001
-1.7673018 1.0854603 4.4990001
-1.7984183 1.0044146 4.5580001
-1.7904782 1.0123546 4.5580001
-1.7957716 1.0229414 4.5580001
-1.7825382 1.0202947 4.5580001
-1.7666581 1.0282347 4.5580001
-1.7825382 1.083815 4.5580001
-1.7745981 1.0996951 4.5580001
-1.8224866 1.0259031 4.6190004
-1.806394 1.106366 4.6190004
-1.806394 1.1144123 4.6190004
