# .PCD v0.7 - Point Cloud Data file format
VERSION 0.7
FIELDS x y z
SIZE 4 4 4
TYPE F F F
COUNT 1 1 1
WIDTH 157
HEIGHT 1
VIEWPOINT 0 0 0 1 0 0 0
POINTS 157
DATA ascii
0.067171656 -0.051154751 0.54734993
0.075355269 -0.051665165 0.54705709
0.081792712 -0.050901439 0.54844451
0.067083828 -0.047527321 0.54761773
0.074083179 -0.045743428 0.54787809
0.081834175 -0.048231155 0.54827273
0.073480181 -0.038945027 0.54900002
0.084178627 -0.022015359 0.54899985
0.079025783 -0.012363036 0.54892856
0.082658879 -0.01577857 0.54895818
0.078947082 -0.0073070684 0.54885715
0.081466995 -0.0077448459 0.54890007
0.067289665 -0.061194241 0.55800009
0.075042002 -0.061541677 0.55634487
0.080461681 -0.061074086 0.55650008
0.059114981 -0.053431906 0.55807698
0.064875938 -0.055380765 0.55496109
0.074868016 -0.056949511 0.55346882
0.08282645 -0.054879796 0.55239999
0.05816609 -0.046722509 0.55768752
0.06398344 -0.044011123 0.55328238
0.077450916 -0.042206768 0.55029422
0.084148437 -0.044557802 0.55336362
0.029051047 -0.030998603 0.55900002
0.048202015 -0.033595342 0.55900002
0.05654116 -0.031461008 0.55855554
0.06532868 -0.034965757 0.55423701
0.074934147 -0.034655727 0.55076206
0.084187724 -0.034271598 0.55258942
0.094690792 -0.032279562 0.55502272
0.10458518 -0.032097206 0.55834216
0.1124237 -0.031515356 0.55580956
0.019290328 -0.021560155 0.5583334
0.026058123 -0.023605647 0.55805063
0.034589872 -0.023223883 0.55792856
0.041385569 -0.021423116 0.55900002
0.05642844 -0.025882745 0.55716413
0.065143056 -0.025098491 0.5540458
0.074955717 -0.024990134 0.5516699
0.08469452 -0.025998849 0.55078471
0.095064133 -0.025050618 0.55578113
0.10486811 -0.025136419 0.55486381
0.11476045 -0.024909522 0.55168545
0.12458897 -0.023220882 0.55172592
0.13149646 -0.022230305 0.55246675
0.019136669 -0.018406047 0.55858338
0.026025057 -0.015827326 0.55710572
0.034873616 -0.015127078 0.55735123
0.04133432 -0.017348628 0.55900002
0.058638252 -0.0160772 0.55729026
0.065174043 -0.014962398 0.55433071
0.074549802 -0.015123344 0.55049473
0.086789854 -0.014349943 0.55059987
0.094935827 -0.016078375 0.55759126
0.10467866 -0.018012367 0.55605882
0.11504999 -0.01772031 0.55253583
0.12533322 -0.017650478 0.55241179
0.13139668 -0.018451773 0.55258334
0.029700231 -0.0092508914 0.55900002
0.032597877 -0.0092442716 0.55860007
0.065783426 -0.0050727227 0.55640805
0.07448478 -0.0044688578 0.55183876
0.085368402 -0.004322384 0.55309397
0.092106827 -0.0051185596 0.55811769
0.066006511 0.0046118619 0.55692738
0.074730136 0.0048904321 0.55291706
0.084992811 0.0048308703 0.55439019
0.092285976 0.0049705748 0.55787188
0.066537313 0.01466737 0.55784178
0.074934416 0.014989459 0.55506623
0.085208118 0.015009498 0.55581808
0.091966741 0.015690036 0.55812126
0.067760885 0.02443319 0.55835718
0.074876688 0.025106406 0.5567112
0.08508648 0.025340017 0.5570091
0.093662351 0.025564034 0.55832309
0.069625132 0.030674009 0.55900002
0.075464405 0.031503309 0.55842298
0.084483556 0.0312507 0.55852383
0.094600536 0.031290244 0.55870003
0.10066757 0.039978031 0.55300003
0.099097647 0.045714438 0.55500007
0.10166178 0.047769684 0.55700004
0.099455141 0.050940439 0.55700004
0.10271298 0.050383579 0.55800009
0.099812254 0.068651348 0.55900002
0.10298899 0.067838177 0.55815381
0.098395765 0.072701447 0.55894452
0.10325058 0.07235337 0.55796963
0.084231801 0.085205577 0.55900002
0.091535136 0.085692465 0.55900002
0.056478877 -0.051755745 0.56116664
0.054371417 -0.048018996 0.56112504
0.087796807 -0.041947361 0.56
0.027314562 -0.031216644 0.56
0.03570845 -0.031035412 0.56050003
0.045343239 -0.031739056 0.56062078
0.054683123 -0.032939658 0.56053346
0.10639483 -0.034326546 0.56033337
0.016746428 -0.021298856 0.56000006
0.02703584 -0.028011361 0.56
0.035648081 -0.027994797 0.56029552
0.045271352 -0.025366882 0.5608288
0.052110106 -0.023538595 0.56060475
0.01638207 -0.01699155 0.56040639
0.020973681 -0.015120561 0.56
0.039508563 -0.010730721 0.56
0.04546383 -0.014768546 0.56092346
0.054163869 -0.014582778 0.56140035
0.093649924 -0.01243788 0.56
0.036302321 -0.0078983661 0.56121051
0.057072304 -0.0052030198 0.56215018
0.060784586 -0.0034168309 0.56041181
0.095770359 -0.0044834856 0.56072736
0.056789715 0.0052036676 0.56298357
0.061025724 0.0053033382 0.56051737
0.097081214 0.0052157529 0.5622353
0.10118191 0.0081991591 0.5648334
0.05692954 0.014882231 0.56459677
0.061707646 0.015400449 0.56065857
0.09658172 0.014759663 0.56115019
0.10112617 0.014882628 0.56230444
0.057363618 0.024177318 0.56603789
0.063173503 0.025541447 0.56204295
0.098335274 0.024366288 0.5607242
0.10111529 0.025102163 0.56121439
0.057989337 0.031443618 0.56564713
0.065453768 0.034890652 0.56508511
0.074705094 0.036570594 0.5631758
0.084925763 0.036245119 0.56138122
0.094694145 0.036566775 0.56318337
0.1013757 0.039861318 0.565
0.066211119 0.044176251 0.56717354
0.074825384 0.045289952 0.56517988
0.084849007 0.045214351 0.56354606
0.094987534 0.045230817 0.56445509
0.100945 0.044522364 0.56637502
0.06848973 0.05502839 0.56828582
0.075004116 0.055268753 0.56654066
0.085107788 0.055104457 0.56484526
0.094867252 0.055051979 0.56432194
0.10127761 0.055073719 0.56556529
0.068813093 0.062415529 0.56838465
0.074805826 0.063517064 0.56750011
0.085892424 0.064099781 0.56566262
0.09517929 0.065268867 0.5641284
0.10118956 0.063657828 0.56619048
0.087941036 0.076464444 0.56336099
0.093230739 0.073582739 0.56296432
0.086872466 0.083500586 0.56115806
0.091178894 0.084139131 0.56100005
0.054775413 0.025778441 0.57089478
0.059425429 0.04744105 0.57333338
0.062084779 0.046608958 0.57163632
0.059494529 0.051495265 0.574
0.064243987 0.05454142 0.57209826
0.065719083 0.060888506 0.57100004
