# .PCD v0.7 - Point Cloud Data file format
VERSION 0.7
FIELDS x y z
SIZE 4 4 4
TYPE F F F
COUNT 1 1 1
WIDTH 105
HEIGHT 1
VIEWPOINT 0 0 0 1 0 0 0
POINTS 105
DATA ascii
0.14891031 0.054999132 0.47383872
0.15299316 0.05625914 0.47469369
0.15571785 0.065580308 0.47556967
0.16112283 0.069528453 0.47800002
0.15686227 0.07316523 0.47749996
0.16236155 0.073583901 0.47777787
0.15396293 0.063289262 0.4821389
0.058314331 0.058701791 0.51900005
0.065673977 0.057658214 0.51743948
0.075147472 0.055842187 0.51446867
0.085304126 0.056014784 0.51445061
0.093917526 0.057071045 0.51659101
0.10243431 0.058675963 0.51900005
0.057487492 0.064668939 0.51828593
0.064996459 0.065621242 0.51528084
0.074902311 0.064650185 0.51190203
0.085126713 0.064741358 0.51200026
0.095766082 0.063295305 0.51506239
0.10177295 0.063722402 0.51639402
0.057184204 0.071940392 0.51900005
0.063430361 0.0721514 0.51658136
0.076132834 0.074054904 0.51308
0.085177802 0.07428389 0.51348096
0.094275624 0.074752554 0.51574707
0.10193706 0.070745669 0.51900005
0.093278259 0.08292456 0.51664293
0.10080694 0.080012679 0.51900005
0.065791816 0.015766378 0.52791214
0.074689791 0.015503138 0.52771175
0.082321703 0.017844046 0.52846164
0.048798569 0.027436107 0.5290001
0.056281805 0.026639959 0.52818173
0.064955935 0.025178632 0.52493149
0.075102963 0.025069574 0.52422577
0.083899565 0.0255751 0.52703601
0.059123266 0.031517789 0.52824998
0.065101177 0.033804137 0.52638203
0.074913368 0.034228019 0.52564383
0.082838103 0.032449421 0.52647072
0.059213195 0.049114823 0.52700001
0.065317318 0.04919881 0.52578253
0.075038999 0.048240483 0.52491319
0.085137971 0.047528572 0.5269829
0.091246344 0.048199784 0.52643758
0.048891474 0.058473218 0.52742857
0.055225138 0.055428587 0.5248785
0.064286768 0.052913163 0.52281588
0.073489249 0.051209651 0.52108347
0.085084639 0.051577207 0.52642876
0.095625736 0.053346585 0.52232432
0.10487927 0.055842113 0.52353853
0.11272869 0.056271773 0.52732629
0.046743523 0.063491538 0.52666217
0.052735873 0.062618181 0.5230937
0.1077035 0.064745411 0.52153492
0.11381792 0.063983902 0.52607709
0.048600983 0.072483398 0.5272941
0.053131059 0.075275891 0.52540016
0.09893702 0.076778032 0.52071434
0.10522801 0.075177282 0.5222469
0.10868426 0.080480844 0.52649999
0.058741201 0.0083118668 0.53610003
0.065411411 0.0061207283 0.53242856
0.074484669 0.0062792012 0.5314762
0.083116539 0.0076141004 0.53323275
0.046261575 0.017705819 0.53422654
0.055677667 0.016249729 0.53491479
0.062022608 0.01328411 0.53144127
0.077621683 0.011542976 0.53011113
0.085356213 0.014632205 0.53158903
0.090867087 0.018173415 0.53500003
0.046846136 0.023327863 0.53150004
0.053760901 0.023609299 0.53047472
0.060473535 0.020773351 0.53000003
0.088460825 0.023761384 0.53173685
0.090722494 0.024253694 0.53360003
0.048625033 0.030775335 0.53000003
0.056278784 0.033643197 0.53150016
0.064839922 0.038179584 0.53048152
0.074092291 0.039053965 0.53038472
0.085851312 0.035670228 0.53280497
0.090414159 0.032457817 0.53233337
0.045697194 0.049803089 0.53640002
0.057420723 0.044740543 0.53450012
0.065248616 0.044296362 0.53131437
0.074841961 0.043419432 0.53091002
0.082234979 0.042909607 0.53227037
0.096184768 0.048204727 0.53307414
0.10529664 0.047378723 0.53511119
0.1152368 0.046598848 0.53522378
0.12060651 0.048041258 0.537
0.046420351 0.054383472 0.53397524
0.051938802 0.052022811 0.531591
0.098224685 0.052474447 0.53219998
0.10533052 0.051704288 0.5309751
0.11526225 0.052158851 0.5324474
0.12063177 0.051298421 0.53640002
0.046277575 0.068902679 0.53092319
0.11833116 0.062935561 0.53000009
0.045989502 0.071344666 0.53120005
0.11563909 0.038862389 0.54412508
0.049385704 0.048445024 0.54000002
0.050326385 0.048445024 0.54000002
0.1089325 0.043079276 0.54088891
0.1137819 0.042392883 0.54140484
