# .PCD v0.7 - Point Cloud Data file format
VERSION 0.7
FIELDS x y z
SIZE 4 4 4
TYPE F F F
COUNT 1 1 1
WIDTH 118
HEIGHT 1
VIEWPOINT 0 0 0 1 0 0 0
POINTS 118
DATA ascii
-0.44666624 0.39703667 1.628
-0.43578225 0.39620399 1.6226667
-0.44666624 0.40412661 1.628
-0.43149778 0.40016791 1.6350001
-0.43279135 0.39599288 1.643
-0.43289357 0.4042725 1.6430001
-0.42359173 0.41643646 1.6430001
-0.41929856 0.41643646 1.6430001
-0.45872873 0.39833185 1.651
-0.43859643 0.39833185 1.651
-0.42667854 0.39713293 1.655
-0.46480483 0.4012253 1.6590002
-0.44147247 0.40120789 1.651
-0.4355619 0.40677914 1.6526002
-0.42588201 0.40459192 1.6575003
-0.44072166 0.4118219 1.659
-0.43231595 0.41308197 1.6563333
-0.42510265 0.41404065 1.6563337
-0.418033 0.415869 1.655
-0.41615686 0.42049181 1.659
-0.46898213 0.39928821 1.6670001
-0.43994299 0.3963843 1.6670001
-0.47478998 0.40219212 1.6670002
-0.46898213 0.40654796 1.6670001
-0.4196156 0.40799993 1.6670001
-0.41613093 0.41787323 1.6670001
-0.47415066 0.408499 1.6750001
-0.4245472 0.40704009 1.6750001
-0.41871151 0.408499 1.6750001
-0.42162934 0.4128758 1.6750001
-0.48227882 0.40898418 1.6830001
-0.47543797 0.40507516 1.6830001
-0.43243846 0.4001888 1.6830001
-0.42291015 0.40531945 1.6830001
-0.45002916 0.41777954 1.6830001
-0.42071131 0.41631365 1.6830001
-0.4001888 0.4280408 1.6830001
-0.40605241 0.43537024 1.6830003
-0.40800691 0.44221109 1.6830001
-0.42148739 0.4052763 1.692
-0.41706619 0.40822378 1.692
-0.41588718 0.41352922 1.692
-0.41313624 0.4357335 1.6920002
-0.40527633 0.43180349 1.692
-0.41411871 0.4406459 1.692
-0.42792234 0.40423113 1.7
-0.41459602 0.41903812 1.7
-0.41903812 0.42199951 1.7
-0.41607672 0.44569072 1.7
-0.47557124 0.40677792 1.7170001
-0.46211168 0.42472401 1.7170001
-0.45912069 0.4232285 1.7170001
-0.4037869 0.42921054 1.7170001
-0.41425547 0.43818358 1.7170001
-0.4037869 0.43220156 1.7170001
-0.42023748 0.45463416 1.7170001
-0.4464938 0.40440011 1.7260001
-0.46303061 0.41642687 1.7260001
-0.4464938 0.41041347 1.7260001
-0.46754062 0.42845362 1.7260001
-0.40139341 0.42845362 1.7260001
-0.46453398 0.43146032 1.7260002
-0.42244026 0.43747371 1.7260001
-0.41605103 0.43484288 1.726
-0.40139341 0.43146032 1.7260001
-0.42244026 0.44048041 1.7260001
-0.41943356 0.44048041 1.7260001
-0.42544696 0.45852056 1.7260001
-0.42544696 0.46303061 1.7260001
-0.44614679 0.40687862 1.7340001
-0.43748766 0.40828824 1.7340001
-0.4395014 0.41231576 1.7340001
-0.40325385 0.42741889 1.7340001
-0.4223845 0.4314464 1.7340001
-0.4062745 0.4304395 1.7340001
-0.43346015 0.45762518 1.7340001
-0.42741889 0.45762518 1.7340001
-0.4304395 0.46215612 1.7340001
-0.44178256 0.40838319 1.743
-0.43874624 0.40534687 1.743
-0.44481885 0.41141948 1.743
-0.4073711 0.42761311 1.743
-0.42356473 0.43419176 1.743
-0.41293764 0.43267363 1.743
-0.43267363 0.45696408 1.743
-0.42963731 0.45696408 1.743
-0.43419176 0.46151853 1.743
-0.4837395 0.41659585 1.7520001
-0.47458354 0.4272778 1.7520001
-0.41354388 0.42778647 1.7520002
-0.40743989 0.42575181 1.7520001
-0.47458354 0.43185577 1.7520001
-0.41659585 0.43414474 1.7520001
-0.42880377 0.44101173 1.7520001
-0.41659585 0.44101173 1.7520001
-0.45861551 0.41873589 1.761
-0.41566822 0.42793888 1.761
-0.4629021 0.41653049 1.7745
-0.45246971 0.41232359 1.7730001
-0.4911944 0.42611501 1.779
-0.48654586 0.42921403 1.779
-0.4794594 0.4270426 1.7700001
-0.46876177 0.41892663 1.7880001
-0.49367934 0.43450013 1.7880001
-0.49644041 0.44006231 1.7980001
-0.49535602 0.43521699 1.8170002
-0.47872427 0.42464912 1.8260001
-0.50053585 0.42697468 1.8360001
-0.49573839 0.42697468 1.8360001
-0.48454431 0.42697468 1.8360001
-0.49094093 0.43177214 1.8360001
-0.48561043 0.4312391 1.8360002
-0.49200702 0.42930025 1.8460001
-0.5013327 0.43573171 1.8460001
-0.49415085 0.43680364 1.8460001
-0.49522275 0.44216317 1.8460001
-0.50814378 0.43701443 1.8560002
-0.50922149 0.44132528 1.8560001
