# .PCD v0.7 - Point Cloud Data file format
VERSION 0.7
FIELDS x y z
SIZE 4 4 4
TYPE F F F
COUNT 1 1 1
WIDTH 192
HEIGHT 1
VIEWPOINT 0 0 0 1 0 0 0
POINTS 192
DATA ascii
-0.0031068572 0.61826456 3.5670002
0.084755272 0.56189609 3.6040001
0.091033444 0.56503516 3.6040001
0.097311608 0.5744524 3.6040001
-0.0094172526 0.62467778 3.6040001
0.06592077 0.63095593 3.6040001
0.075338021 0.63095593 3.6040001
0.079304554 0.56782061 3.6420002
0.079304554 0.57416499 3.6420002
0.085648917 0.57416499 3.6420002
0.085648917 0.58050936 3.6420002
0.091993287 0.58050936 3.6420002
-0.034894004 0.63126427 3.6420002
-0.026434852 0.6333791 3.6420002
-0.015860911 0.63126427 3.6420002
-0.0031721822 0.63760865 3.6420002
-0.0031721822 0.64395297 3.6420002
0.0031721822 0.64395297 3.6420002
-0.022205275 0.65664172 3.6420002
-0.015860911 0.65664172 3.6420002
-0.0074017583 0.65241218 3.6420002
-0.015860911 0.6629861 3.6420002
0.073741481 0.56428266 3.6810002
0.080153778 0.56748879 3.6810002
0.064123027 0.57390106 3.6810002
0.073741481 0.57390106 3.6810002
0.067329176 0.58031338 3.6810002
0.073741481 0.58351952 3.6810002
0.080153778 0.58672565 3.6810002
0.041679967 0.59313798 3.6810002
0.067329176 0.59313798 3.6810002
0.073741481 0.59634411 3.6810002
0.083359927 0.59634411 3.6810002
0.092978388 0.59313798 3.6810002
0.073741481 0.60596257 3.6810002
0.083359927 0.60596257 3.6810002
0.065191746 0.61664975 3.6810005
0.073741481 0.61558104 3.6810002
0.083359927 0.61558104 3.6810002
0.064123027 0.6251995 3.6810002
0.073741481 0.6251995 3.6810002
0.080153778 0.6251995 3.6810002
-0.025649209 0.63161176 3.6810002
0.064123027 0.63481796 3.6810002
0.073741481 0.63481796 3.6810002
0.080153778 0.63481796 3.6810002
-0.022443058 0.64443642 3.6810002
-0.016030757 0.64443642 3.6810002
-0.0096184537 0.64443642 3.6810002
0.086566083 0.64443642 3.6810002
-0.024580492 0.65298617 3.6810005
-0.016030757 0.65405488 3.6810002
-0.0096184537 0.65084869 3.6810002
0.061578833 0.56717348 3.7210002
0.064819828 0.57365543 3.7210002
0.05509685 0.58337843 3.7210002
0.061578833 0.58661944 3.7210002
0.048614867 0.59958339 3.7210002
0.05509685 0.59958339 3.7210002
0.063739501 0.59526205 3.7210002
0.042132884 0.60606533 3.7210002
0.05509685 0.60606533 3.7210002
0.064819828 0.60606533 3.7210002
0.035650901 0.61578834 3.7210002
0.044293545 0.61686867 3.7210002
0.05509685 0.61902934 3.7210002
0.063739501 0.61470807 3.7210002
0.045373876 0.62551129 3.7210002
0.05509685 0.62551129 3.7210002
0.093988746 0.62551129 3.7210002
-0.022686938 0.63199329 3.7210002
-0.016204957 0.63847524 3.7210002
0.048614867 0.63847524 3.7210002
0.05509685 0.63523424 3.7210002
0.087506764 0.63523424 3.7210002
0.05509685 0.64495724 3.7210002
0.063739501 0.65576059 3.7210002
0.074542798 0.6579212 3.7210002
0.081024781 0.6579212 3.7210002
0.068060815 0.6644032 3.7210002
0.074542798 0.6644032 3.7210002
0.081024781 0.6644032 3.7210002
0.093988746 0.6644032 3.7210002
0.055703938 0.57997626 3.7620001
0.049150534 0.59635979 3.7620001
0.055703938 0.5996365 3.7620001
0.049150534 0.61602002 3.7620001
0.055703938 0.61929673 3.7620001
-0.016383512 0.6389569 3.7620001
-0.009830107 0.6389569 3.7620001
0.045873832 0.6389569 3.7620001
-0.0065534045 0.64551032 3.7620001
0.0065534045 0.65861714 3.7620001
0.045873832 0.65206373 3.7620001
0.055703938 0.65861714 3.7620001
0.009830107 0.66517055 3.7620001
0.016383512 0.66517055 3.7620001
0.088470958 0.66517055 3.7620001
0.009830107 0.67172396 3.7620001
0.062257342 0.67172396 3.7620001
0.088470958 0.67172396 3.7620001
0.095024362 0.67827737 3.7620001
0.016383512 0.68483078 3.7620001
0.022936916 0.68483078 3.7620001
0.095024362 0.68483078 3.7620001
-0.016562065 0.63929576 3.8030002
-0.0066248262 0.63929576 3.8030002
-0.0033124131 0.64592057 3.8030002
0.0099372398 0.64592057 3.8030002
0.0077289641 0.65696192 3.8030002
0.036436547 0.65254539 3.8030002
0.043061372 0.65254539 3.8030002
0.016562065 0.66579503 3.8030002
0.026499305 0.66579503 3.8030002
0.036436547 0.66579503 3.8030002
0.046373785 0.66579503 3.8030002
0.016562065 0.67904472 3.8030002
0.026499305 0.67573237 3.8030002
0.049686197 0.67904472 3.8030002
0.056311026 0.67573231 3.8030002
0.016562065 0.68566954 3.8030002
0.026499305 0.68566954 3.8030002
0.066248268 0.68566954 3.8030002
0.076185502 0.68566954 3.8030002
0.086122744 0.68566954 3.8030002
0.066248268 0.69229436 3.8030002
0.08943516 0.69229436 3.8030002
0.066248268 0.70554399 3.8030002
0.076185502 0.70554399 3.8030002
0.056311026 0.71879369 3.8030002
0.066248268 0.71216881 3.8030002
0.076185502 0.71216881 3.8030002
-0.010049598 0.63982445 3.8460002
-0.0033498663 0.63982445 3.8460002
0.010049598 0.63982445 3.8460002
0.03349866 0.64652419 3.8460002
0.0033498663 0.65657377 3.8460002
0.016749332 0.65657377 3.8460002
0.023449063 0.65992367 3.8460002
0.032382041 0.6554572 3.8460002
0.016749332 0.66662335 3.8460002
0.023449063 0.66662335 3.8460002
0.03349866 0.66662335 3.8460002
0.036848526 0.68337274 3.8460002
0.04354826 0.68337274 3.8460002
0.050247993 0.68002284 3.8460002
0.036848526 0.69342232 3.8460002
0.05359786 0.69342232 3.8460002
0.036848526 0.70012206 3.8460002
0.05359786 0.7034719 3.8460002
0.063647456 0.7068218 3.8460002
0.074813686 0.70458859 3.8460002
0.083746657 0.70012206 3.8460002
0.05359786 0.71352148 3.8460002
0.052481242 0.72245449 3.8460002
0.016936596 0.63342869 3.8890002
0.014678384 0.6424616 3.8890004
0.023711234 0.64359069 3.8890002
0.013549278 0.65375262 3.8890002
0.023711234 0.65375262 3.8890002
0.023711234 0.66052723 3.8890002
0.044035152 0.70456243 3.8890002
0.044035152 0.71472436 3.8890002
0.010276929 0.59948754 3.9330001
0.010276929 0.60633886 3.9330001
-0.0034256433 0.61319011 3.9330001
0.0034256433 0.61319011 3.9330001
0.013702572 0.61319011 3.9330001
-0.010276929 0.62004143 3.9330001
-0.0034256433 0.62004143 3.9330001
0.0034256433 0.62004143 3.9330001
0.013702572 0.62004143 3.9330001
0.010276929 0.64059526 3.9330001
0.0034256433 0.66114914 3.9330001
0.013862837 0.596102 3.9790001
0.0034657093 0.60649914 3.9790001
0.017328545 0.60649914 3.9790001
0.024259964 0.60649914 3.9790001
-0.010397128 0.61343056 3.9790001
-0.0034657093 0.61343056 3.9790001
0.0034657093 0.61343056 3.9790001
0.017328545 0.61343056 3.9790001
-0.010397128 0.62036192 3.9790001
0.0034657093 0.63422477 3.9790001
0.0034657093 0.66195047 3.9790001
0.0035057752 0.60649914 4.0250001
-0.010517325 0.61351067 4.0250001
-0.0035057752 0.61351067 4.0250001
0.0035057752 0.66259152 4.0250001
0.0035475832 0.65630287 4.0730004
0.0035475832 0.66339809 4.0730004
-0.0035475832 0.67049325 4.0730004
