# .PCD v0.7 - Point Cloud Data file format
VERSION 0.7
FIELDS x y z
SIZE 4 4 4
TYPE F F F
COUNT 1 1 1
WIDTH 158
HEIGHT 1
VIEWPOINT 0 0 0 1 0 0 0
POINTS 158
DATA ascii
0.96059114 0.70831466 2.2280002
0.95924366 0.70917606 2.243
0.95924366 0.71503705 2.243
0.9644534 0.71568823 2.243
0.95729005 0.72089797 2.243
0.96510464 0.72089797 2.243
0.96129924 0.71753418 2.2570002
0.964248 0.72736347 2.2570002
0.96523094 0.73326099 2.2570004
0.97702605 0.73326099 2.2570002
0.96916264 0.74112439 2.2570002
0.96373022 0.72428179 2.2720001
0.96373022 0.7341764 2.2720001
0.97956151 0.73615527 2.2720001
0.98351932 0.7341764 2.2720001
0.96768802 0.74209207 2.2720001
0.97659314 0.74308157 2.2720001
0.98351932 0.74407101 2.2720001
0.97956151 0.75000769 2.2720001
0.97009283 0.74300748 2.2870002
0.99399656 0.74499941 2.2870002
0.97286785 0.7482056 2.3030002
0.97687972 0.75221741 2.3030002
1.0640014 0.73692703 2.3180001
1.011508 0.75509781 2.3180001
1.0458307 0.78740144 2.3180001
1.1160699 0.7460795 2.3340001
0.98189753 0.758277 2.3340001
1.0245887 0.76234281 2.3340001
1.0510166 0.79080361 2.3340001
1.0960882 0.74607688 2.3500001
1.105299 0.74505341 2.3500001
1.0786901 0.751194 2.3500001
1.1168979 0.75255859 2.3500001
1.0295656 0.76347512 2.3500001
1.0357062 0.765522 2.3500001
1.0275187 0.77166247 2.3500001
1.0357062 0.77166247 2.3500001
1.12725 0.74806535 2.3660002
1.0942774 0.7563085 2.3660002
1.1045814 0.7563085 2.3660002
1.1107637 0.7563085 2.3660002
1.1251892 0.75424773 2.3660002
1.040697 0.76455164 2.3660002
1.1190069 0.7604301 2.3660002
1.12725 0.76455164 2.3660002
1.1099763 0.75312412 2.3820002
1.1265742 0.75519884 2.3820002
1.13349 0.75589037 2.3820004
1.0394357 0.76972193 2.3820002
1.0456599 0.76557243 2.3820002
1.0560336 0.76557249 2.3820002
1.0643325 0.76557249 2.3820002
1.097528 0.76557249 2.3820002
1.1047895 0.76453513 2.3820002
1.1265742 0.76972193 2.3820002
1.1307236 0.76557249 2.3820002
1.0539589 0.77594608 2.3820002
1.0684819 0.79046911 2.3820002
1.075121 0.79461861 2.3820002
1.0747061 0.80291748 2.3820002
1.1262562 0.75432003 2.3990002
1.1346143 0.75432003 2.3990002
1.0761075 0.76685721 2.3990002
1.1304352 0.76685721 2.3990002
1.0593913 0.77312577 2.3990002
1.0656599 0.77521533 2.3990002
1.074018 0.77521527 2.3990002
1.1053609 0.77521533 2.3990002
1.1165051 0.77660841 2.3990002
1.1241667 0.77312577 2.3990002
1.1346143 0.77521533 2.3990002
1.0677494 0.78357345 2.3990002
1.0719285 0.78357345 2.3990002
1.0552123 0.79193157 2.3990002
1.0761075 0.79193157 2.3990002
1.0844655 0.79193157 2.3990002
1.0747145 0.80307567 2.3990002
1.0802865 0.80028963 2.3990002
1.0677494 0.81282681 2.3990002
1.0677494 0.82118493 2.3990002
1.1300285 0.75966537 2.4160001
1.1300285 0.77650005 2.4160001
1.0753157 0.78491735 2.4160001
1.1174024 0.78281307 2.4160001
1.1216111 0.78491735 2.4160001
1.1342372 0.7835145 2.4160001
1.0668985 0.79754341 2.4160001
1.0753157 0.79543912 2.4160004
1.07742 0.80175209 2.4160001
1.1026721 0.80175209 2.4160001
1.07251 0.82419837 2.4160001
1.1422181 0.78620207 2.4330001
1.125265 0.7925595 2.4330001
1.1337416 0.79467869 2.4330001
1.1506947 0.79467869 2.4330001
1.1040735 0.80739355 2.4330001
1.1061927 0.8116318 2.4330001
1.1252651 0.82858503 2.4330001
1.1083119 0.83706152 2.4330001
1.1245917 0.79596341 2.45
1.154467 0.79596341 2.45
1.127437 0.80165398 2.4500003
1.1331276 0.80023128 2.45
1.1459312 0.80023128 2.45
1.154467 0.80023128 2.45
1.0776448 0.81303501 2.45
1.0947164 0.81730288 2.45
1.1587349 0.81730288 2.45
1.0989844 0.82583869 2.45
1.116056 0.82370472 2.45
1.1416633 0.82583869 2.45
1.114989 0.83544147 2.45
1.1231691 0.8329519 2.45
1.1352615 0.83010662 2.45
1.1416633 0.83224058 2.45
1.0904485 0.84291029 2.45
1.111788 0.84291029 2.45
1.1586496 0.80611056 2.4680002
1.0898615 0.81900829 2.4680002
1.0941607 0.81900829 2.4680002
1.1371533 0.81685865 2.4680002
1.1436023 0.81470907 2.4680004
1.1529173 0.81327599 2.4680002
1.1672481 0.81470907 2.4680002
1.0855622 0.82330757 2.4680002
1.09846 0.82545722 2.4680002
1.1199563 0.82760686 2.4680002
1.1285548 0.82545722 2.4680002
1.1371533 0.82545722 2.4680002
1.1436021 0.82545722 2.4680002
1.150051 0.82545722 2.4680002
1.1629488 0.82330757 2.4680002
1.09846 0.83190608 2.4680002
1.1041924 0.83477229 2.4680002
1.1199563 0.83405572 2.4680002
1.1285548 0.83190608 2.4680002
1.1350036 0.83190608 2.4680002
1.1436021 0.83190608 2.4680002
1.1543503 0.83620536 2.4680002
1.1049089 0.84695351 2.4680002
1.115657 0.84265423 2.4680002
1.1041924 0.85626853 2.4680002
1.1049089 0.86200088 2.4680002
1.1623017 0.81599206 2.4850001
1.1709594 0.81599206 2.4850001
1.0973686 0.82897866 2.4850001
1.1016974 0.82897866 2.4850001
1.1406573 0.82681423 2.4850001
1.1579728 0.8203209 2.4850001
1.1644661 0.82464975 2.4850004
1.1709594 0.82248533 2.4850001
1.1406573 0.8333075 2.4850001
1.164466 0.83547199 2.4850001
1.1146841 0.84629416 2.4850001
1.1183981 0.85242426 2.503
1.1159043 0.84571493 2.5220001
1.1659032 0.8384769 2.5400002
